ply
format ascii 1.0
element vertex 1123
property float x
property float y
property float z
property uchar red
property uchar green
property uchar blue
end_header
-0.158048 0.595003 -4.760023 136 134 119
-0.148664 0.594657 -4.757259 134 135 121
-0.138889 0.592593 -4.740741 136 137 123
-0.129256 0.590883 -4.727063 138 136 123
-0.119266 0.587156 -4.697248 139 137 124
-0.109091 0.581818 -4.654545 136 134 121
-0.099099 0.576577 -4.612613 135 133 120
-0.090090 0.576577 -4.612613 135 133 120
-0.052253 0.668844 -5.350751 134 135 121
-0.041370 0.661926 -5.295411 136 134 121
-0.030691 0.654731 -5.237852 136 134 121
-0.020408 0.653061 -5.224490 137 138 124
-0.010159 0.650159 -5.201270 136 137 123
-2.882883 0.567568 -4.612613 129 135 129
-2.873874 0.567568 -4.612613 125 131 125
-2.864865 0.567568 -4.612613 128 134 130
-2.855856 0.567568 -4.612613 128 134 130
-2.846847 0.567568 -4.612613 124 130 124
-3.078803 0.615761 -5.004276 128 134 128
-3.069029 0.615761 -5.004276 128 134 128
-3.027811 0.609432 -4.952842 127 133 127
-3.010856 0.607961 -4.940893 127 131 128
-17.507246 3.652174 -29.681160 125 131 129
-4.540541 1.135135 -9.225225 21 26 31
-4.502242 1.130045 -9.183857 19 24 29
-4.429679 1.116279 -9.071982 24 27 33
-4.373216 1.106476 -8.992316 0 3 9
-4.336612 1.101639 -8.953006 18 23 28
-4.538462 1.211538 -9.846154 139 140 133
-9.575448 2.578005 -20.951406 139 140 133
-9.486005 2.564885 -20.844784 138 139 132
-9.373737 2.545455 -20.686869 138 139 132
-9.333333 2.545455 -20.686869 140 141 134
-9.223058 2.526316 -20.531328 139 140 133
-9.002457 2.476659 -20.127764 136 137 130
-8.963145 2.476659 -20.127764 126 127 120
-8.709832 2.417266 -19.645084 122 123 116
-8.144144 2.270270 -18.450451 118 119 112
-7.912088 2.215385 -18.004396 111 112 105
-7.876923 2.215385 -18.004396 128 128 126
-7.559322 2.135593 -17.355932 137 137 135
-7.462185 2.117647 -17.210085 140 144 143
-7.147541 2.065574 -16.786884 135 139 134
-7.014142 2.036364 -16.549496 134 138 133
-6.953722 2.028169 -16.482897 134 138 135
-12.375000 3.937500 -32.000000 164 168 165
-12.312500 3.937500 -32.000000 162 166 163
-12.250000 3.937500 -32.000000 163 169 163
-12.187500 3.937500 -32.000000 165 171 165
-11.669173 3.789474 -30.796993 163 169 163
-12.062500 3.937500 -32.000000 164 170 164
-12.000000 3.937500 -32.000000 171 173 166
-11.937500 3.937500 -32.000000 171 173 166
-11.875000 3.937500 -32.000000 168 170 163
-11.812500 3.937500 -32.000000 172 174 167
-11.750000 3.937500 -32.000000 174 175 171
-11.687500 3.937500 -32.000000 168 169 165
-11.625000 3.937500 -32.000000 169 173 168
-11.003717 3.747212 -30.453531 170 174 169
-10.744526 3.678832 -29.897810 170 174 171
-10.570397 3.638989 -29.574007 169 173 170
-10.253521 3.549296 -28.845070 171 177 173
-10.055555 3.500000 -28.444445 171 177 173
-9.965398 3.487889 -28.346022 171 177 171
-3.215686 1.235294 -10.039216 153 154 147
-3.142169 1.214458 -9.869880 152 153 146
-3.122892 1.214458 -9.869880 154 156 149
-1.630397 1.740933 -14.148532 134 135 121
-1.602763 1.740933 -14.148532 134 135 119
-1.553663 1.717206 -13.955707 134 135 119
-1.526405 1.717206 -13.955707 134 135 119
-0.776238 0.998020 -8.110891 134 135 119
-0.758893 0.996047 -8.094862 134 135 119
-0.743083 0.996047 -8.094862 136 137 121
-0.726555 0.995064 -8.086871 134 135 121
-0.709360 0.993103 -8.070936 136 137 123
-0.691552 0.990177 -8.047152 136 137 123
-0.675835 0.990177 -8.047152 136 137 123
-0.576850 0.956357 -7.772296 136 137 123
-0.559018 0.951841 -7.735600 134 135 121
-0.541863 0.948260 -7.706491 136 137 123
-0.244648 0.616514 -5.010397 134 135 121
-0.233719 0.613512 -4.986001 134 135 119
-0.223981 0.613512 -4.986001 134 135 119
-0.213075 0.610169 -4.958838 134 135 119
-0.200119 0.600357 -4.879095 133 134 118
-0.189125 0.595745 -4.841608 134 135 119
-0.178509 0.591897 -4.810335 133 134 118
-0.167930 0.587755 -4.776676 134 135 121
-0.157956 0.585366 -4.757259 133 134 120
-0.148148 0.583333 -4.740741 133 135 121
-0.138488 0.581650 -4.727063 132 134 120
-0.128810 0.579643 -4.710753 132 134 120
-0.118789 0.575671 -4.678470 132 134 120
-0.109029 0.572402 -4.651902 135 133 120
-0.099099 0.567568 -4.612613 136 134 121
-0.090090 0.567568 -4.612613 134 135 121
-0.073394 0.660550 -5.368283 132 133 119
-0.062704 0.658393 -5.350751 133 134 120
-0.052117 0.656678 -5.336808 133 134 120
-0.041370 0.651584 -5.295411 131 132 118
-0.030809 0.646983 -5.258023 131 132 118
-0.020487 0.645326 -5.244558 131 132 118
-0.010243 0.645326 -5.244558 132 133 119
-2.882883 0.558559 -4.612613 129 135 133
-2.873874 0.558559 -4.612613 126 132 130
-2.864865 0.558559 -4.612613 128 134 130
-2.855856 0.558559 -4.612613 128 134 130
-3.088577 0.605987 -5.004276 126 132 128
-3.078803 0.605987 -5.004276 127 133 129
-3.048544 0.601942 -4.970874 127 133 129
-3.024155 0.599034 -4.946860 125 131 127
-2.996398 0.595438 -4.917167 125 129 128
-2.986795 0.595438 -4.917167 125 129 128
-4.373216 1.088913 -8.992316 6 9 15
-4.322440 1.080610 -8.923747 27 32 37
-4.563177 1.193743 -9.858003 131 131 127
-4.473934 1.175355 -9.706161 129 130 123
-4.454976 1.175355 -9.706161 128 129 122
-9.575448 2.537084 -20.951406 128 129 122
-9.708333 2.583333 -21.333334 125 126 119
-9.493607 2.537084 -20.951406 125 126 119
-9.404580 2.524173 -20.844784 124 125 118
-9.340101 2.517766 -20.791878 123 124 117
-9.137157 2.473815 -20.428928 119 120 113
-9.029703 2.455446 -20.277227 110 111 104
-8.815534 2.407767 -19.883495 114 115 108
-8.692307 2.384615 -19.692308 119 119 117
-7.982262 2.199557 -18.164080 124 124 122
-7.825327 2.165939 -17.886463 136 140 137
-7.559322 2.101695 -17.355932 145 149 146
-7.462185 2.084034 -17.210085 143 147 144
-7.459916 2.092827 -17.282700 140 144 141
-7.441861 2.097252 -17.319239 136 141 133
-7.439490 2.106157 -17.392782 132 137 129
-7.147541 2.032787 -16.786884 130 134 129
-7.028340 2.008097 -16.582996 132 136 131
-6.967742 2.000000 -16.516129 132 136 135
-12.375000 3.875000 -32.000000 164 168 163
-12.312500 3.875000 -32.000000 162 166 161
-12.250000 3.875000 -32.000000 164 168 163
-11.685393 3.715356 -30.681648 165 169 164
-11.411765 3.647059 -30.117647 164 168 163
-11.394834 3.660517 -30.228783 166 170 165
-12.000000 3.875000 -32.000000 172 174 167
-11.937500 3.875000 -32.000000 171 173 166
-11.875000 3.875000 -32.000000 170 172 165
-11.812500 3.875000 -32.000000 172 174 167
-11.750000 3.875000 -32.000000 173 174 170
-11.205993 3.715356 -30.681648 171 172 168
-10.941176 3.647059 -30.117647 171 172 168
-10.609319 3.555556 -29.362007 172 173 169
-10.439716 3.517730 -29.049644 172 176 173
-10.237762 3.468531 -28.643356 171 175 172
-10.076124 3.432526 -28.346022 171 177 173
-9.718121 3.328859 -27.489933 171 177 173
-9.568107 3.295681 -27.215946 170 176 172
-9.390164 3.252459 -26.859016 171 177 173
-3.324937 1.249370 -10.317380 153 154 150
-3.239506 1.224691 -10.113581 153 155 148
-3.207872 1.220172 -10.076261 151 153 146
-1.719237 1.719237 -14.197574 132 134 120
-1.613913 1.725217 -14.246957 133 135 121
-1.575130 1.713299 -14.148532 133 135 121
-1.529010 1.692833 -13.979522 134 135 119
-1.501706 1.692833 -13.979522 134 135 119
-0.757488 0.958454 -7.914976 134 134 123
-0.742029 0.958454 -7.914976 134 135 121
-0.727977 0.960310 -7.930300 136 137 123
-0.715258 0.964043 -7.961127 136 137 123
-0.699708 0.964043 -7.961127 134 135 121
-0.681510 0.960310 -7.930300 136 137 121
-0.662813 0.955684 -7.892100 136 137 121
-0.644914 0.952015 -7.861804 136 137 123
-0.625954 0.946565 -7.816794 134 135 121
-0.607787 0.942070 -7.779677 134 135 119
-0.589792 0.937618 -7.742911 134 135 119
-0.574127 0.936733 -7.735600 134 135 121
-0.556914 0.933208 -7.706491 134 135 121
-0.541863 0.933208 -7.706491 134 135 119
-0.244798 0.607099 -5.013464 133 135 121
-0.233577 0.603406 -4.982968 132 133 117
-0.223708 0.603040 -4.979939 134 135 119
-0.212817 0.599758 -4.952842 134 135 119
-0.200000 0.590476 -4.876191 133 134 118
-0.188902 0.585596 -4.835891 134 135 121
-0.178299 0.581818 -4.804692 133 134 120
-0.167930 0.578426 -4.776676 133 135 121
-0.157773 0.575406 -4.751740 132 134 120
-0.147891 0.573079 -4.732524 136 137 126
-0.138010 0.570443 -4.710753 133 134 123
-0.128220 0.567831 -4.689181 133 135 121
-0.118654 0.565887 -4.673132 133 135 121
-0.108967 0.562997 -4.649262 133 135 121
-0.099099 0.558559 -4.612613 133 135 121
-0.090090 0.558559 -4.612613 133 135 121
-0.083879 0.650066 -5.368283 132 134 120
-0.073250 0.648790 -5.357750 132 134 120
-0.062704 0.647943 -5.350751 130 132 118
-0.052117 0.646254 -5.336808 131 133 119
-0.041531 0.643738 -5.316029 129 130 119
-0.030988 0.640413 -5.288573 130 131 120
-0.020658 0.640413 -5.288573 129 131 117
-2.882883 0.549550 -4.612613 132 133 133
-2.873874 0.549550 -4.612613 131 132 132
-2.864865 0.549550 -4.612613 129 133 132
-3.094570 0.595485 -4.998169 130 134 133
-3.088577 0.596213 -5.004276 126 132 130
-3.075046 0.595485 -4.998169 126 132 130
-3.048544 0.592233 -4.970874 127 133 131
-3.024155 0.589372 -4.946860 126 132 130
-2.996398 0.585834 -4.917167 125 131 127
-2.986795 0.585834 -4.917167 124 130 126
-4.538462 1.173077 -9.846154 122 122 115
-10.080429 2.616622 -21.962467 122 122 115
-9.984000 2.602667 -21.845333 122 122 115
-9.941334 2.602667 -21.845333 120 120 113
-9.717278 2.554974 -21.445026 124 125 118
-9.675393 2.554974 -21.445026 119 120 113
-9.460155 2.508997 -21.059126 109 109 105
-9.275949 2.470886 -20.739241 103 103 99
-9.097257 2.433915 -20.428928 105 105 103
-8.923833 2.398034 -20.127764 119 119 117
-8.884521 2.398034 -20.127764 125 131 129
-8.551069 2.318290 -19.458433 129 135 133
-7.946785 2.164080 -18.164080 143 149 147
-7.656652 2.094421 -17.579399 147 153 151
-7.493671 2.059072 -17.282700 143 147 144
-7.459916 2.059072 -17.282700 139 143 140
-7.426160 2.059072 -17.282700 129 134 126
-7.439490 2.072187 -17.392782 130 135 127
-7.281837 2.037578 -17.102297 130 135 127
-7.056911 1.983740 -16.650406 130 135 127
-12.250000 3.812500 -32.000000 166 167 163
-11.685393 3.655431 -30.681648 167 168 164
-11.411765 3.588235 -30.117647 166 167 163
-11.394834 3.601476 -30.228783 168 169 165
-12.000000 3.812500 -32.000000 164 166 159
-11.937500 3.812500 -32.000000 167 169 162
-11.875000 3.812500 -32.000000 170 175 167
-11.812500 3.812500 -32.000000 171 176 168
-11.750000 3.812500 -32.000000 171 176 168
-11.687500 3.812500 -32.000000 172 177 169
-10.901099 3.575092 -30.007326 172 176 171
-10.496454 3.460993 -29.049644 173 177 172
-10.082191 3.342466 -28.054794 172 176 173
-9.959184 3.319728 -27.863945 172 176 173
-9.904762 3.319728 -27.863945 172 176 173
-9.685618 3.264214 -27.397993 172 176 173
-9.568107 3.242525 -27.215946 171 175 172
-9.390164 3.200000 -26.859016 172 176 173
-9.216828 3.158576 -26.511328 171 175 170
-3.444877 1.265888 -10.625162 151 155 150
-3.350254 1.238579 -10.395939 150 154 149
-3.304786 1.229219 -10.317380 154 156 149
-1.716263 1.688581 -14.173011 131 133 119
-1.688581 1.688581 -14.173011 132 134 120
-1.613913 1.697391 -14.246957 131 133 119
-1.575130 1.685665 -14.148532 131 133 119
-1.531624 1.668376 -14.003419 131 133 117
-1.504274 1.668376 -14.003419 131 133 117
-0.771456 0.941176 -7.899711 133 134 123
-0.751678 0.935762 -7.854267 133 134 123
-0.735632 0.934866 -7.846743 133 135 121
-0.718243 0.932187 -7.824260 135 137 123
-0.702961 0.932187 -7.824260 138 136 123
-0.689655 0.934866 -7.846743 136 134 121
-0.674330 0.934866 -7.846743 138 136 121
-0.654615 0.928639 -7.794481 138 136 121
-0.638177 0.926876 -7.779677 134 135 121
-0.621212 0.924242 -7.757576 134 135 121
-0.604915 0.922495 -7.742911 136 137 123
-0.588679 0.920755 -7.728302 136 137 123
-0.571429 0.917293 -7.699248 130 132 118
-0.556391 0.917293 -7.699248 130 132 118
-0.244648 0.596942 -5.010397 131 133 119
-0.233435 0.593313 -4.979939 131 132 116
-0.223437 0.592593 -4.973892 132 133 117
-0.212304 0.588661 -4.940893 134 135 119
-0.199525 0.579572 -4.864608 134 135 119
-0.188568 0.575133 -4.827343 134 135 121
-0.178090 0.571763 -4.799063 132 133 119
-0.167832 0.568765 -4.773893 132 133 122
-0.157590 0.565469 -4.746234 133 134 123
-0.147891 0.563836 -4.732524 133 134 123
-0.138010 0.561242 -4.710753 133 134 123
-0.128220 0.558672 -4.689181 133 134 123
-0.118654 0.556760 -4.673132 133 134 123
-0.109029 0.554231 -4.651902 131 133 119
-0.099886 0.553916 -4.649262 132 134 120
-0.104849 0.639581 -5.368283 132 134 120
-0.094364 0.639581 -5.368283 130 132 118
-0.083824 0.639162 -5.364768 130 132 118
-0.073346 0.639162 -5.364768 132 134 120
-0.062745 0.637909 -5.354249 130 131 120
-0.052185 0.636660 -5.343771 131 132 121
-0.041612 0.634590 -5.326398 130 131 120
-0.031149 0.633355 -5.316029 128 129 118
-0.020779 0.633766 -5.319480 130 131 120
-2.873874 0.540541 -4.612613 129 130 130
-2.864865 0.540541 -4.612613 127 131 130
-3.090465 0.586797 -5.007335 126 132 130
-3.075046 0.585723 -4.998169 128 134 132
-3.048544 0.582524 -4.970874 126 135 132
-3.025982 0.580060 -4.949849 124 133 130
-2.998198 0.576577 -4.920120 123 132 127
-2.988589 0.576577 -4.920120 122 131 126
-10.345205 2.630137 -22.443836 123 123 116
-10.217391 2.608696 -22.260870 123 123 116
-10.010695 2.566845 -21.903744 122 122 115
-9.967915 2.566845 -21.903744 119 119 112
-9.898666 2.560000 -21.845333 116 116 109
-9.726315 2.526316 -21.557896 111 111 104
-9.633508 2.513089 -21.445026 111 111 109
-9.394872 2.461539 -21.005129 128 128 126
-9.165829 2.412060 -20.582914 142 148 146
-8.990099 2.376238 -20.277227 153 159 157
-8.950495 2.376238 -20.277227 153 159 157
-7.790393 2.096070 -17.886463 143 149 145
-7.573561 2.046908 -17.466951 136 141 133
-7.459916 2.025316 -17.282700 130 135 127
-7.379455 2.012579 -17.174004 125 130 122
-7.315240 2.004175 -17.102297 129 134 126
-7.281837 2.004175 -17.102297 129 134 126
-7.248434 2.004175 -17.102297 132 137 129
-7.081967 1.967213 -16.786884 137 138 134
-12.250000 3.750000 -32.000000 166 167 163
-12.187500 3.750000 -32.000000 166 167 163
-11.625468 3.595506 -30.681648 164 169 161
-12.062500 3.750000 -32.000000 168 173 165
-12.000000 3.750000 -32.000000 163 168 160
-11.937500 3.750000 -32.000000 168 173 165
-10.941176 3.529412 -30.117647 172 176 171
-10.242214 3.321799 -28.346022 170 174 169
-10.082191 3.287671 -28.054794 172 176 173
-9.959184 3.265306 -27.863945 172 176 173
-9.904762 3.265306 -27.863945 172 176 173
-3.548473 1.274900 -10.879150 150 155 147
-3.444877 1.245136 -10.625162 155 160 152
-3.380282 1.229193 -10.489117 151 156 148
-3.390181 1.240310 -10.583980 154 156 149
-1.716263 1.660900 -14.173011 130 132 118
-1.685665 1.658031 -14.148532 132 134 120
-1.652324 1.652324 -14.099828 133 134 120
-1.641739 1.669565 -14.246957 132 133 119
-1.611111 1.666667 -14.222222 132 134 120
-1.575130 1.658031 -14.148532 131 133 119
-1.542169 1.652324 -14.099828 133 135 121
-1.504274 1.641026 -14.003419 132 134 120
-1.476923 1.641026 -14.003419 133 135 121
-0.767754 0.921305 -7.861804 132 133 122
-0.743833 0.910816 -7.772296 133 134 123
-0.727273 0.909091 -7.757576 133 135 121
-0.716873 0.915157 -7.809342 133 135 121
-0.701621 0.915157 -7.809342 136 134 121
-0.673527 0.898036 -7.663237 138 136 123
-0.658559 0.898036 -7.663237 136 134 121
-0.644799 0.899719 -7.677601 136 134 121
-0.629803 0.899719 -7.677601 131 132 118
-0.614808 0.899719 -7.677601 134 135 121
-0.599813 0.899719 -7.677601 135 137 123
-0.584270 0.898876 -7.670412 136 138 124
-0.567694 0.896359 -7.648926 133 135 121
-0.552239 0.895522 -7.641791 132 134 120
-0.244648 0.587156 -5.010397 131 133 119
-0.233151 0.582878 -4.973892 134 135 121
-0.223301 0.582524 -4.970874 134 135 121
-0.212048 0.578313 -4.934940 134 135 121
-0.199288 0.569395 -4.858838 134 135 121
-0.188235 0.564706 -4.818823 134 135 121
-0.177570 0.560748 -4.785047 132 133 119
-0.167637 0.558789 -4.768335 133 134 120
-0.157499 0.555877 -4.743486 131 132 118
-0.147977 0.554913 -4.735260 131 132 121
-0.138329 0.553314 -4.721614 133 134 123
-0.128440 0.550459 -4.697248 131 132 121
-0.118789 0.548258 -4.678470 131 132 121
-0.109589 0.547945 -4.675799 130 131 120
-0.094488 0.629921 -5.375328 130 131 120
-0.083824 0.628684 -5.364768 130 132 118
-0.073346 0.628684 -5.364768 132 134 120
-0.062868 0.628684 -5.364768 131 132 121
-0.052288 0.627451 -5.354249 130 131 120
-0.041721 0.625815 -5.340287 130 131 120
-0.031209 0.624187 -5.326398 128 129 118
-0.020860 0.625815 -5.340287 128 130 116
-3.075046 0.575961 -4.998169 128 134 132
-3.048544 0.572816 -4.970874 128 134 132
-3.025982 0.570393 -4.949849 127 133 131
-2.998198 0.566967 -4.920120 124 130 128
-2.988589 0.566967 -4.920120 124 130 128
-10.345205 2.586301 -22.443836 123 124 117
-10.080429 2.530831 -21.962467 122 123 116
-9.984000 2.517333 -21.845333 118 119 112
-9.941334 2.517333 -21.845333 111 112 105
-9.898666 2.517333 -21.845333 109 109 105
-9.856000 2.517333 -21.845333 118 118 114
-9.684211 2.484210 -21.557896 126 130 129
-9.467700 2.439276 -21.167959 143 147 146
-9.235443 2.389874 -20.739241 149 155 153
-8.990099 2.336634 -20.277227 154 160 158
-8.950495 2.336634 -20.277227 151 157 155
-7.876379 2.083885 -18.083885 125 129 124
-7.605996 2.021413 -17.541756 122 127 119
-7.428571 1.983193 -17.210085 123 128 120
-7.333333 1.966667 -17.066668 123 128 120
-7.300000 1.966667 -17.066668 127 132 124
-7.251559 1.962578 -17.031185 128 133 125
-7.158763 1.946392 -16.890722 129 134 126
-7.081967 1.934426 -16.786884 138 139 137
-12.187500 3.687500 -32.000000 166 171 163
-12.125000 3.687500 -32.000000 165 170 162
-12.062500 3.687500 -32.000000 165 170 162
-12.000000 3.687500 -32.000000 166 171 163
-11.937500 3.687500 -32.000000 168 173 165
-10.191781 3.232877 -28.054794 171 175 170
-9.736842 3.105263 -26.947369 171 175 170
-10.082191 3.232877 -28.054794 170 174 169
-7.887955 2.644258 -22.946779 171 176 168
-7.526882 2.537634 -22.021505 171 176 168
-7.443850 2.524064 -21.903744 171 176 168
-3.608054 1.267114 -10.995974 151 156 148
-3.548473 1.253652 -10.879150 149 154 146
-3.471895 1.233987 -10.708497 154 159 151
-3.424124 1.224384 -10.625162 154 159 151
-3.403372 1.224384 -10.625162 156 158 151
-1.688581 1.633218 -14.173011 132 133 117
-1.660900 1.633218 -14.173011 134 135 121
-1.608177 1.608177 -13.955707 134 135 121
-1.600000 1.627586 -14.124138 133 134 120
-1.575130 1.630397 -14.148532 132 133 119
-1.547496 1.630397 -14.148532 134 135 121
-1.512028 1.621993 -14.075602 134 135 121
-1.471891 1.608177 -13.955707 133 135 121
-1.432432 1.594595 -13.837838 133 135 121
-1.403035 1.591906 -13.814503 135 137 123
-1.350993 1.562914 -13.562914 133 135 121
-1.302932 1.537459 -13.342019 133 135 121
-0.743833 0.895636 -7.772296 133 135 121
-0.725898 0.892250 -7.742911 134 135 121
-0.708098 0.888889 -7.713748 134 135 121
-0.687850 0.882243 -7.656075 138 136 123
-0.655141 0.858963 -7.454049 136 134 121
-0.640582 0.858963 -7.454049 136 134 121
-0.639405 0.877323 -7.613383 136 134 121
-0.629803 0.884724 -7.677601 130 131 117
-0.614232 0.883895 -7.670412 134 135 121
-0.599251 0.883895 -7.670412 133 135 121
-0.582633 0.881419 -7.648926 133 135 121
-0.567164 0.880597 -7.641791 133 135 121
-0.544618 0.868445 -7.536338 132 134 120
-0.521739 0.855072 -7.420290 133 135 121
-0.507246 0.855072 -7.420290 133 135 121
-0.255685 0.580209 -5.035034 131 133 119
-0.244499 0.577017 -5.007335 131 133 119
-0.233010 0.572816 -4.970874 133 135 121
-0.223030 0.572121 -4.964849 133 135 121
-0.212048 0.568675 -4.934940 134 135 121
-0.199288 0.559905 -4.858838 134 135 121
-0.188125 0.554968 -4.815990 134 135 121
-0.177570 0.551402 -4.785047 133 134 120
-0.168028 0.550758 -4.779463 130 131 117
-0.158140 0.548837 -4.762791 130 131 117
-0.148148 0.546296 -4.740741 132 133 122
-0.138648 0.545350 -4.732524 132 133 122
-0.129107 0.544092 -4.721614 132 133 122
-0.119266 0.541284 -4.697248 133 134 123
-0.094737 0.621053 -5.389474 132 134 120
-0.084045 0.619829 -5.378858 132 134 120
-0.073539 0.619829 -5.378858 132 134 120
-0.062992 0.619423 -5.375328 131 133 119
-0.052425 0.618611 -5.368283 129 131 117
-0.041912 0.618206 -5.364768 129 131 117
-0.031434 0.618206 -5.364768 129 131 117
-0.020984 0.619016 -5.371803 129 131 117
-3.075046 0.566199 -4.998169 128 134 132
-3.048544 0.563107 -4.970874 128 134 132
-3.025982 0.560725 -4.949849 127 133 131
-2.998198 0.557357 -4.920120 125 131 129
-2.988589 0.557357 -4.920120 124 130 128
-10.389041 2.542466 -22.443836 121 122 115
-10.150537 2.494624 -22.021505 119 120 113
-10.026667 2.474667 -21.845333 110 111 104
-9.878628 2.448549 -21.614777 108 109 102
-9.836411 2.448549 -21.614777 111 112 105
-9.846154 2.461539 -21.729443 122 122 118
-9.777778 2.455026 -21.671957 139 139 135
-9.684211 2.442105 -21.557896 143 147 146
-9.541667 2.416667 -21.333334 151 155 154
-9.329924 2.373402 -20.951406 158 164 162
-9.034826 2.308458 -20.378109 160 166 164
-8.950495 2.297030 -20.277227 148 154 150
-8.780488 2.263415 -19.980488 132 138 134
-8.259259 2.148148 -18.962963 120 125 117
-7.755458 2.026201 -17.886463 122 127 117
-7.571734 1.987152 -17.541756 122 127 117
-7.394958 1.949580 -17.210085 119 124 114
-7.315240 1.937369 -17.102297 122 127 117
-7.281837 1.937369 -17.102297 125 129 126
-7.248434 1.937369 -17.102297 130 134 131
-7.125773 1.913402 -16.890722 141 142 140
-12.125000 3.625000 -32.000000 164 168 163
-12.062500 3.625000 -32.000000 165 169 164
-12.000000 3.625000 -32.000000 166 170 165
-11.276752 3.424354 -30.228783 166 170 165
-7.771429 2.410390 -21.277922 170 172 165
-7.534177 2.349367 -20.739241 169 174 166
-7.455919 2.337532 -20.634760 171 176 168
-7.494737 2.442105 -21.557896 171 175 170
-7.452631 2.442105 -21.557896 172 176 171
-7.371728 2.429319 -21.445026 171 175 170
-7.272727 2.410390 -21.277922 171 175 170
-7.156812 2.385604 -21.059126 170 175 167
-7.115681 2.385604 -21.059126 168 173 165
-3.693989 1.267760 -11.191257 154 159 151
-3.627530 1.252362 -11.055330 152 157 149
-3.562667 1.237333 -10.922667 154 159 151
-3.527225 1.232404 -10.879150 154 159 151
-3.450980 1.213072 -10.708497 154 159 151
-3.484728 1.232404 -10.879150 154 159 151
-1.663778 1.608319 -14.197574 133 134 120
-1.608177 1.580920 -13.955707 134 135 121
-1.580920 1.580920 -13.955707 134 135 121
-1.553663 1.580920 -13.955707 134 135 121
-1.539519 1.594502 -14.075602 133 135 121
-1.509434 1.591767 -14.051458 133 135 121
-1.471891 1.580920 -13.955707 132 134 120
-1.430017 1.564924 -13.814503 131 133 119
-1.388982 1.549249 -13.676126 134 135 121
-1.350993 1.536424 -13.562914 130 131 117
-0.668483 0.842870 -7.440509 134 135 119
-0.653951 0.842870 -7.440509 134 135 119
-0.639419 0.842870 -7.440509 134 135 121
-0.639405 0.862454 -7.613383 133 134 120
-0.624535 0.862454 -7.613383 130 131 117
-0.609099 0.861653 -7.606314 134 135 121
-0.594243 0.861653 -7.606314 132 134 120
-0.578850 0.860853 -7.599258 132 134 120
-0.559338 0.853726 -7.536338 132 134 120
-0.534779 0.838302 -7.400181 132 134 120
-0.515206 0.830054 -7.327370 134 135 121
-0.498664 0.826358 -7.294746 134 135 121
-0.489649 0.835284 -7.373538 133 135 121
-0.288199 0.576398 -5.088199 132 134 120
-0.278261 0.576398 -5.088199 131 132 121
-0.265683 0.570726 -5.038130 132 133 122
-0.254590 0.567931 -5.013464 132 133 122
-0.243605 0.565164 -4.989038 131 132 121
-0.232727 0.562424 -4.964849 132 134 120
-0.222760 0.561743 -4.958838 133 135 121
-0.212048 0.559036 -4.934940 133 134 120
-0.200597 0.554030 -4.890746 133 134 120
-0.188125 0.545561 -4.815990 133 135 121
-0.178718 0.545561 -4.815990 132 134 120
-0.168323 0.542373 -4.787843 130 131 117
-0.105471 0.611734 -5.400132 132 134 120
-0.094799 0.610928 -5.393022 132 134 120
-0.084211 0.610526 -5.389474 132 134 120
-0.073684 0.610526 -5.389474 132 134 120
-0.063075 0.609724 -5.382391 131 133 119
-0.052493 0.608924 -5.375328 128 130 116
-0.041967 0.608525 -5.371803 128 130 116
-0.031475 0.608525 -5.371803 130 132 118
-0.021025 0.609724 -5.382391 128 130 116
-3.076923 0.556777 -5.001221 126 132 128
-3.048544 0.553398 -4.970874 124 130 126
-3.031477 0.552058 -4.958838 126 132 128
-2.998198 0.547748 -4.920120 125 131 129
-2.988589 0.547748 -4.920120 124 130 128
-9.560000 2.280000 -20.480000 118 120 113
-9.890909 2.368831 -21.277922 121 122 115
-9.849351 2.368831 -21.277922 119 120 113
-9.989418 2.412699 -21.671957 115 116 109
-9.894737 2.400000 -21.557896 114 115 108
-9.775457 2.381201 -21.389034 114 114 110
-9.784777 2.393701 -21.501312 128 128 124
-9.794195 2.406332 -21.614777 146 147 145
-9.777778 2.412699 -21.671957 156 157 155
-9.658792 2.393701 -21.501312 155 159 156
-9.541667 2.375000 -21.333334 149 153 150
-9.329924 2.332481 -20.951406 141 147 143
-9.080000 2.280000 -20.480000 140 146 142
-8.906404 2.246305 -20.177340 132 138 132
-8.780488 2.224390 -19.980488 121 127 121
-8.615385 2.192308 -19.692308 113 118 110
-8.259259 2.111111 -18.962963 116 121 113
-8.165517 2.096552 -18.832184 121 126 118
-8.752475 2.257426 -20.277227 116 121 113
-8.712872 2.257426 -20.277227 125 130 122
-8.673267 2.257426 -20.277227 130 135 127
-12.062500 3.562500 -32.000000 163 169 163
-11.377778 3.377778 -30.340740 165 169 164
-10.992805 3.280576 -29.467627 165 169 164
-10.704226 3.211268 -28.845070 166 167 163
-7.771429 2.368831 -21.277922 165 166 162
-7.496222 2.297229 -20.634760 164 169 161
-7.400000 2.280000 -20.480000 168 173 165
-7.360000 2.280000 -20.480000 171 176 168
-7.494737 2.400000 -21.557896 172 176 171
-7.452631 2.400000 -21.557896 172 176 171
-7.352480 2.381201 -21.389034 172 176 171
-7.197943 2.344473 -21.059126 169 173 168
-7.048101 2.308861 -20.739241 168 173 165
-6.834568 2.251852 -20.227161 164 169 161
-6.795062 2.251852 -20.227161 164 169 161
-3.699042 1.247606 -11.206567 155 160 152
-3.652174 1.239130 -11.130435 155 160 152
-3.605938 1.230769 -11.055330 155 160 152
-3.541333 1.216000 -10.922667 154 159 151
-3.520000 1.216000 -10.922667 152 157 149
-1.580920 1.553663 -13.955707 131 133 119
-1.545763 1.545763 -13.884746 131 133 119
-1.518644 1.545763 -13.884746 131 133 119
-1.499148 1.553663 -13.955707 130 132 118
-1.459459 1.540541 -13.837838 132 134 120
-1.427609 1.535354 -13.791245 132 134 120
-1.382060 1.514950 -13.607973 132 134 120
-1.339901 1.497537 -13.451560 131 133 119
-1.313629 1.497537 -13.451560 133 134 120
-0.585192 0.813559 -7.307761 132 133 119
-0.556646 0.813559 -7.307761 133 135 121
-0.549232 0.823848 -7.400181 133 135 121
-0.520668 0.802111 -7.204925 133 135 121
-0.506596 0.802111 -7.204925 133 135 121
-0.491228 0.800000 -7.185965 133 135 121
-0.481416 0.807080 -7.249557 133 135 121
-0.303364 0.557798 -5.010397 133 135 121
-0.293578 0.557798 -5.010397 131 132 121
-0.286243 0.562616 -5.053670 131 132 121
-0.265519 0.560541 -5.035034 131 132 123
-0.253968 0.556777 -5.001221 132 133 122
-0.242718 0.553398 -4.970874 132 133 122
-0.232164 0.551391 -4.952842 132 134 120
-0.221420 0.548736 -4.929001 132 134 120
-0.211538 0.548077 -4.923077 132 134 120
-0.199881 0.542534 -4.873290 132 134 120
-0.188125 0.536155 -4.815990 132 134 120
-0.178718 0.536155 -4.815990 132 134 120
-0.116248 0.602378 -5.410832 131 133 119
-0.105402 0.600791 -5.396574 131 133 119
-0.094799 0.600395 -5.393022 129 131 117
-0.084266 0.600395 -5.393022 129 131 117
-0.073733 0.600395 -5.393022 129 131 117
-0.063158 0.600000 -5.389474 133 135 121
-0.052562 0.599212 -5.382391 131 133 119
-0.041995 0.598425 -5.375328 130 132 118
-0.031496 0.598425 -5.375328 130 132 118
-0.021025 0.599212 -5.382391 128 130 116
-0.010519 0.599606 -5.385931 128 130 116
-3.078803 0.547343 -5.004276 127 133 131
-3.048544 0.543689 -4.970874 127 133 131
-3.031477 0.542373 -4.958838 124 130 128
-3.001804 0.538785 -4.926037 122 128 126
-2.992183 0.538785 -4.926037 121 127 125
-9.560000 2.240000 -20.480000 115 116 107
-9.764103 2.297436 -21.005129 117 118 111
-9.480000 2.240000 -20.480000 115 116 109
-9.165049 2.174757 -19.883495 117 117 113
-9.543147 2.274112 -20.791878 129 129 125
-9.724675 2.327273 -21.277922 138 139 137
-9.733682 2.339426 -21.389034 153 154 152
-9.925134 2.395722 -21.903744 161 165 164
-9.882353 2.395722 -21.903744 157 161 160
-9.839572 2.395722 -21.903744 151 155 152
-9.541667 2.333333 -21.333334 144 148 145
-9.306123 2.285714 -20.897959 135 142 133
-9.080000 2.240000 -20.480000 129 136 127
-8.884521 2.201474 -20.127764 129 133 128
-8.695652 2.164251 -19.787439 125 129 124
-8.615385 2.153846 -19.692308 118 120 113
-8.454976 2.123223 -19.412323 122 124 117
-8.417062 2.123223 -19.412323 121 122 115
-8.752475 2.217822 -20.277227 121 122 115
-8.712872 2.217822 -20.277227 132 134 127
-7.891892 2.018018 -18.450451 138 140 133
-7.855856 2.018018 -18.450451 140 141 134
-7.767338 2.004474 -18.326622 142 143 136
-7.783784 2.018018 -18.450451 145 146 142
-7.747748 2.018018 -18.450451 150 151 147
-12.062500 3.500000 -32.000000 163 169 163
-11.377778 3.318518 -30.340740 166 167 163
-10.836880 3.177305 -29.049644 166 167 163
-10.704226 3.154930 -28.845070 167 168 164
-7.496222 2.256927 -20.634760 168 173 165
-7.326733 2.217822 -20.277227 171 176 168
-7.287129 2.217822 -20.277227 171 176 168
-7.314286 2.327273 -21.277922 172 176 171
-7.088608 2.268354 -20.739241 168 172 167
-6.994975 2.251256 -20.582914 169 174 166
-6.784314 2.196079 -20.078432 168 173 165
-6.745098 2.196079 -20.078432 164 169 161
-6.545455 2.143541 -19.598085 161 166 158
-3.852691 1.269122 -11.603399 157 162 154
-3.750347 1.242718 -11.361998 155 160 152
-3.677155 1.225718 -11.206567 153 160 151
-3.630435 1.217391 -11.130435 154 161 152
-3.594046 1.212449 -11.085250 151 156 148
-1.600000 1.518644 -13.884746 131 133 119
-1.564924 1.510961 -13.814503 132 134 120
-1.535354 1.508417 -13.791245 132 134 120
-1.508417 1.508417 -13.791245 131 133 119
-1.481481 1.508417 -13.791245 131 133 119
-1.454545 1.508417 -13.791245 131 133 119
-1.418060 1.498328 -13.698997 132 134 120
-1.370675 1.476112 -13.495881 132 134 120
-1.339901 1.471264 -13.451560 132 134 120
-1.313629 1.471264 -13.451560 134 135 121
-0.561644 0.767123 -7.013699 135 137 123
-0.557006 0.779809 -7.129678 133 135 121
-0.547849 0.786655 -7.192274 133 135 121
-0.534741 0.788039 -7.204925 133 135 121
-0.513443 0.777103 -7.104944 132 134 120
-0.496980 0.773080 -7.068162 129 131 117
-0.483175 0.773080 -7.068162 133 135 121
-0.469370 0.773080 -7.068162 133 135 121
-0.459930 0.780488 -7.135889 133 135 121
-0.265683 0.551046 -5.038130 131 132 123
-0.253041 0.545012 -4.982968 132 134 120
-0.242131 0.542373 -4.958838 132 134 120
-0.231047 0.539110 -4.929001 133 134 120
-0.221154 0.538462 -4.923077 133 134 120
-0.211538 0.538462 -4.923077 132 134 120
-0.199881 0.533016 -4.873290 132 134 120
-0.188125 0.526749 -4.815990 132 134 120
-0.178613 0.526439 -4.813161 132 134 120
-0.127321 0.594164 -5.432361 130 132 118
-0.116248 0.591810 -5.410832 130 132 118
-0.105402 0.590250 -5.396574 130 132 118
-0.094862 0.590250 -5.396574 129 131 117
-0.084321 0.590250 -5.396574 129 131 117
-0.073879 0.591029 -5.403694 129 131 117
-0.063199 0.589862 -5.393022 132 134 120
-0.052597 0.589086 -5.385931 130 132 118
-0.042050 0.588699 -5.382391 130 132 118
-0.031537 0.588699 -5.382391 131 133 119
-0.021094 0.590639 -5.400132 130 132 118
-3.067155 0.537241 -5.001221 130 139 140
-3.031477 0.532688 -4.958838 132 141 142
-3.001804 0.529164 -4.926037 139 148 149
-2.990385 0.528846 -4.923077 141 150 151
-9.560000 2.200000 -20.480000 111 112 105
-9.520000 2.200000 -20.480000 111 111 107
-9.115385 2.115385 -19.692308 119 119 115
-8.863850 2.065728 -19.230047 127 128 126
-9.038462 2.115385 -19.692308 138 139 137
-9.775457 2.297650 -21.389034 148 152 151
-9.862433 2.328042 -21.671957 161 165 164
-9.591623 2.303665 -21.445026 144 148 145
-9.165829 2.211055 -20.582914 140 145 137
-9.080000 2.200000 -20.480000 132 137 129
-8.884521 2.162162 -20.127764 129 133 128
-8.759124 2.141119 -19.931873 125 129 124
-8.615385 2.115385 -19.692308 118 120 113
-8.454976 2.085308 -19.412323 118 120 113
-8.184332 2.027650 -18.875576 126 127 120
-8.073059 2.009132 -18.703196 130 131 124
-7.927928 1.981982 -18.450451 139 141 134
-7.786667 1.955556 -18.204445 144 146 139
-7.682819 1.938326 -18.044052 140 141 134
-7.531453 1.908894 -17.770065 142 143 136
-7.578948 1.929825 -17.964912 151 152 148
-7.543859 1.929825 -17.964912 152 153 149
-7.711712 1.981982 -18.450451 156 157 153
-12.000000 3.437500 -32.000000 164 165 163
-10.836880 3.120567 -29.049644 165 166 164
-10.446735 3.024055 -28.151203 167 168 166
-10.356164 3.013699 -28.054794 167 168 166
-7.326733 2.178218 -20.277227 174 175 171
-7.180488 2.146342 -19.980488 172 176 171
-7.141463 2.146342 -19.980488 172 176 171
-7.202046 2.250639 -20.951406 172 176 171
-6.982543 2.194514 -20.428928 168 172 167
-6.823529 2.156863 -20.078432 166 171 163
-6.669879 2.120482 -19.739759 168 173 165
-6.631325 2.120482 -19.739759 165 170 162
-3.776536 1.229050 -11.441340 154 159 151
-3.728155 1.220527 -11.361998 153 160 151
-3.655267 1.203830 -11.206567 155 162 153
-3.618529 1.198910 -11.160763 154 159 151
-1.557756 1.452145 -13.518152 132 134 120
-1.562290 1.481481 -13.791245 132 134 120
-1.535354 1.481481 -13.791245 132 134 120
-1.493333 1.466667 -13.653334 130 132 118
-1.456954 1.456954 -13.562914 131 133 119
-1.425743 1.452145 -13.518152 130 132 118
-1.397035 1.449753 -13.495881 128 130 116
-1.366174 1.444992 -13.451560 132 134 120
-1.333333 1.437909 -13.385621 132 134 120
-1.313629 1.444992 -13.451560 133 134 120
-0.445919 0.583942 -5.435966 133 135 121
-0.433289 0.581242 -5.410832 133 135 121
-0.425532 0.585106 -5.446808 133 135 121
-0.534247 0.753425 -7.013699 133 135 121
-0.524590 0.759275 -7.068162 133 135 121
-0.510785 0.759275 -7.068162 133 135 121
-0.493151 0.753425 -7.013699 129 131 117
-0.477816 0.750853 -6.989761 133 135 121
-0.460627 0.745131 -6.936494 133 135 121
-0.443697 0.739496 -6.884034 133 135 121
-0.252427 0.533981 -4.970874 131 133 119
-0.241838 0.532044 -4.952842 132 134 120
-0.230216 0.527578 -4.911271 132 133 119
-0.220227 0.526631 -4.902453 131 132 118
-0.209524 0.523810 -4.876191 132 134 120
-0.199881 0.523498 -4.873290 132 134 120
-0.188902 0.519481 -4.835891 132 134 120
-0.178718 0.517343 -4.815990 132 134 120
-0.211299 0.645635 -6.010272 132 134 120
-0.127321 0.583554 -5.432361 129 131 117
-0.116248 0.581242 -5.410832 128 130 116
-0.105541 0.580475 -5.403694 128 130 116
-0.094987 0.580475 -5.403694 131 133 119
-0.084433 0.580475 -5.403694 131 132 121
-0.074074 0.582011 -5.417989 130 131 120
-0.063325 0.580475 -5.403694 129 130 119
-0.052632 0.578947 -5.389474 125 126 115
-0.042078 0.578567 -5.385931 129 131 117
-0.031558 0.578567 -5.385931 129 131 117
-3.556818 0.613636 -5.818182 159 168 169
-3.016314 0.522054 -4.949849 157 168 168
-2.992183 0.519543 -4.926037 157 168 168
-8.985782 2.047393 -19.412323 125 126 124
-8.843091 2.023419 -19.185011 135 141 139
-8.826291 2.028169 -19.230047 154 160 158
-8.914286 2.057143 -19.504763 161 167 165
-9.165829 2.170854 -20.582914 143 147 142
-9.080000 2.160000 -20.480000 140 144 139
-8.906404 2.128079 -20.177340 141 142 138
-8.759124 2.102190 -19.931873 136 137 133
-8.657004 2.086957 -19.787439 125 126 122
-8.454976 2.047393 -19.412323 122 123 119
-8.222222 2.000000 -18.962963 134 136 129
-8.054669 1.968109 -18.660593 138 140 133
-7.892377 1.937220 -18.367714 145 147 140
-7.786667 1.920000 -18.204445 142 144 137
-7.517241 1.862069 -17.655172 139 141 134
-7.434690 1.850107 -17.541756 141 143 136
-7.448276 1.862069 -17.655172 152 153 149
-7.445888 1.870130 -17.731602 156 157 153
-7.411255 1.870130 -17.731602 158 159 155
-7.376623 1.870130 -17.731602 158 159 155
-11.937500 3.375000 -32.000000 166 167 165
-10.780142 3.063830 -29.049644 166 167 165
-10.250848 2.928813 -27.769491 166 167 165
-7.344913 2.143921 -20.327543 173 174 170
-7.093976 2.081928 -19.739759 172 173 169
-7.055422 2.081928 -19.739759 174 175 171
-7.022444 2.154613 -20.428928 174 175 171
-6.763285 2.086957 -19.787439 172 173 169
-6.708434 2.081928 -19.739759 171 172 168
-6.653846 2.076923 -19.692308 170 171 167
-6.631325 2.081928 -19.739759 165 170 162
-3.830028 1.223796 -11.603399 158 163 155
-3.748954 1.205021 -11.425384 156 161 153
-3.705964 1.198336 -11.361998 156 161 153
-3.673582 1.195021 -11.330567 152 157 149
-1.557756 1.425743 -13.518152 131 133 119
-1.493333 1.440000 -13.653334 131 133 119
-1.456954 1.430464 -13.562914 131 133 119
-1.425743 1.425743 -13.518152 132 134 120
-1.394737 1.421053 -13.473684 132 134 120
-1.363934 1.416393 -13.429508 133 135 121
-1.333333 1.411765 -13.385621 132 134 120
-0.446215 0.573705 -5.439575 131 133 119
-0.433576 0.571051 -5.414409 131 133 119
-0.423841 0.572185 -5.425166 131 133 119
-0.414894 0.574468 -5.446808 131 133 119
-0.406961 0.578313 -5.483266 133 135 121
-0.396783 0.579088 -5.490617 133 135 121
-0.486076 0.729114 -6.913080 132 134 120
-0.472574 0.729114 -6.913080 133 135 121
-0.457143 0.726050 -6.884034 133 135 121
-0.440000 0.720000 -6.826667 133 135 121
-0.429530 0.724832 -6.872483 133 134 123
-0.252427 0.524272 -4.970874 131 133 119
-0.241109 0.520796 -4.937914 133 135 121
-0.229803 0.517056 -4.902453 132 134 120
-0.219964 0.516438 -4.896593 130 132 118
-0.255628 0.627451 -5.949165 132 134 120
-0.244009 0.627451 -5.949165 132 134 120
-0.232389 0.627451 -5.949165 131 132 118
-0.222874 0.633431 -6.005865 131 132 118
-0.127405 0.573325 -5.435966 131 133 119
-0.116634 0.572565 -5.428761 131 133 119
-0.105680 0.570674 -5.410832 131 133 119
-0.095238 0.571429 -5.417989 130 132 118
-0.084768 0.572185 -5.425166 128 129 118
-0.074172 0.572185 -5.425166 128 129 118
-0.063576 0.572185 -5.425166 129 131 117
-0.052875 0.571051 -5.414409 124 126 112
-0.042468 0.573325 -5.435966 125 127 113
-3.559346 0.602701 -5.822317 172 178 178
-8.863850 1.990610 -19.230047 148 154 152
-8.952381 2.019048 -19.504763 157 163 161
-9.600000 2.231579 -21.557896 143 144 140
-9.102757 2.125313 -20.531328 145 146 142
-9.040000 2.120000 -20.480000 145 146 142
-8.845209 2.083538 -20.127764 144 145 141
-8.677966 2.053269 -19.835352 138 139 135
-8.475060 2.014252 -19.458433 136 137 133
-8.222222 1.962963 -18.962963 145 147 140
-8.073059 1.936073 -18.703196 147 149 142
-7.892377 1.901345 -18.367714 144 146 139
-7.735099 1.871965 -18.083885 139 141 134
-7.517241 1.827586 -17.655172 139 140 138
-7.434690 1.815846 -17.541756 145 146 144
-7.400428 1.815846 -17.541756 158 159 157
-7.366167 1.815846 -17.541756 159 160 158
-7.285106 1.804255 -17.429787 156 160 157
-7.251064 1.804255 -17.429787 156 160 157
-10.250848 2.874576 -27.769491 164 168 163
-7.305211 2.104218 -20.327543 171 172 168
-7.055422 2.043374 -19.739759 173 174 170
-6.824096 2.043374 -19.739759 175 176 169
-6.672986 2.009479 -19.412323 172 174 167
-6.635071 2.009479 -19.412323 171 173 166
-6.581560 2.004728 -19.366430 171 172 168
-6.574822 2.014252 -19.458433 168 169 165
-6.615385 2.038461 -19.692308 167 169 162
-3.953216 1.239766 -11.976608 157 162 154
-3.807365 1.201133 -11.603399 157 162 154
-3.726639 1.182706 -11.425384 156 161 153
-3.688889 1.177778 -11.377778 152 157 149
-1.394737 1.394737 -13.473684 132 134 120
-1.363934 1.390164 -13.429508 133 134 123
-0.435591 0.563081 -5.439575 132 134 120
-0.424685 0.562707 -5.435966 132 134 120
-0.414068 0.562707 -5.435966 130 132 118
-0.404255 0.563830 -5.446808 133 135 121
-0.393617 0.563830 -5.446808 133 135 121
-0.385542 0.567604 -5.483266 133 135 121
-0.466667 0.706667 -6.826667 133 135 121
-0.452956 0.706078 -6.820982 131 132 121
-0.437811 0.703151 -6.792703 131 132 121
-0.424544 0.703151 -6.792703 133 134 123
-0.252121 0.513939 -4.964849 131 133 119
-0.240819 0.510536 -4.931969 132 134 120
-0.229803 0.507481 -4.902453 130 132 118
-0.219964 0.506874 -4.896593 131 133 119
-0.256186 0.617176 -5.962154 131 133 119
-0.244009 0.615831 -5.949165 131 133 119
-0.232897 0.617176 -5.962154 130 131 117
-0.222874 0.621701 -6.005865 132 133 119
-0.211454 0.622614 -6.014684 132 133 119
-0.138667 0.565333 -5.461333 132 133 119
-0.127660 0.563830 -5.446808 133 134 120
-0.116788 0.562707 -5.435966 132 133 119
-0.106171 0.562707 -5.435966 131 133 119
-0.095554 0.562707 -5.435966 129 131 117
-0.084937 0.562707 -5.435966 128 130 116
-0.074369 0.563081 -5.439575 128 130 116
-0.063745 0.563081 -5.439575 128 130 116
-0.053121 0.563081 -5.439575 126 128 114
-0.042553 0.563830 -5.446808 127 128 114
-0.032172 0.568365 -5.490617 129 130 116
-3.654822 0.603336 -5.940536 177 183 183
-3.570718 0.591329 -5.822317 175 179 178
-3.559346 0.591329 -5.822317 176 180 179
-9.956522 2.260870 -22.260870 145 146 142
-9.780161 2.230563 -21.962467 144 148 143
-9.532808 2.183727 -21.501312 147 151 146
-9.224490 2.122449 -20.897959 148 152 147
-9.000000 2.080000 -20.480000 147 151 146
-8.762836 2.034230 -20.029341 146 148 141
-8.556355 1.995204 -19.645084 142 144 137
-8.299066 1.943925 -19.140186 144 146 139
-8.128736 1.912644 -18.832184 145 147 140
-8.018223 1.895216 -18.660593 138 140 133
-7.856502 1.865471 -18.367714 138 140 133
-8.074074 1.925926 -18.962963 139 140 140
-7.366167 1.781585 -17.541756 152 156 155
-7.285106 1.770213 -17.429787 151 155 154
-7.220339 1.762712 -17.355932 151 155 154
-7.141053 1.751579 -17.246315 150 154 151
-7.055422 2.004819 -19.739759 172 173 169
-6.740741 1.925926 -18.962963 174 175 168
-6.552036 1.882353 -18.533937 174 175 168
-6.486486 1.873874 -18.450451 175 176 169
-6.570765 1.930394 -19.006960 175 176 169
-6.533643 1.930394 -19.006960 173 175 168
-6.511628 1.934884 -19.051163 173 175 168
-6.474419 1.934884 -19.051163 170 171 167
-6.407407 1.925926 -18.962963 167 168 164
-6.414918 1.939394 -19.095572 166 168 161
-3.935953 1.211063 -11.924309 158 163 155
-3.867626 1.197122 -11.787050 156 161 153
-3.806268 1.185185 -11.669516 155 160 152
-3.810617 1.193687 -11.753228 154 159 151
-0.436751 0.553928 -5.454061 132 134 120
-0.425249 0.552824 -5.443189 135 137 123
-0.414068 0.552090 -5.435966 132 134 120
-0.403183 0.551724 -5.432361 130 132 118
-0.392313 0.551359 -5.428761 133 135 121
-0.381710 0.551359 -5.428761 133 135 121
-0.464345 0.689884 -6.792703 133 135 121
-0.451078 0.689884 -6.792703 131 132 121
-0.437811 0.689884 -6.792703 132 133 122
-0.424544 0.689884 -6.792703 132 133 122
-0.251969 0.503937 -4.961841 132 134 120
-0.240385 0.500000 -4.923077 130 132 118
-0.229528 0.497310 -4.896593 131 133 119
-0.219570 0.496420 -4.887828 131 133 119
-0.244009 0.604212 -5.949165 129 131 117
-0.232389 0.604212 -5.949165 129 131 117
-0.220290 0.602899 -5.936232 129 131 117
-0.211144 0.609971 -6.005865 130 131 117
-0.199706 0.610866 -6.014684 132 133 119
-0.138852 0.555407 -5.468625 132 133 119
-0.128000 0.554667 -5.461333 133 134 120
-0.117255 0.554297 -5.457695 133 134 120
-0.106596 0.554297 -5.457695 133 135 121
-0.095872 0.553928 -5.454061 128 130 116
-0.085220 0.553928 -5.454061 131 133 119
-0.074617 0.554297 -5.457695 130 132 118
-0.064300 0.557267 -5.486939 128 130 116
-0.053619 0.557641 -5.490617 128 130 116
-0.042867 0.557267 -5.486939 127 128 114
-0.032172 0.557641 -5.490617 123 124 110
-3.709464 0.598679 -6.010272 169 175 175
-3.652174 0.591304 -5.936232 169 175 175
-3.604017 0.585366 -5.876614 170 174 173
-3.592540 0.585366 -5.876614 171 175 174
-9.956522 2.217391 -22.260870 149 153 150
-9.886179 2.211382 -22.200542 149 153 148
-9.737266 2.187668 -21.962467 149 153 148
-9.416667 2.125000 -21.333334 148 152 147
-9.230769 2.092308 -21.005129 147 151 146
-8.960000 2.040000 -20.480000 147 152 144
-8.681265 1.985402 -19.931873 142 147 139
-8.437055 1.938242 -19.458433 145 147 140
-8.261683 1.906542 -19.140186 144 146 139
-8.129331 1.884527 -18.919168 136 138 131
-8.000000 1.863014 -18.703196 139 141 134
-8.055428 1.884527 -18.919168 149 150 146
-7.462039 1.770065 -17.770065 152 156 155
-7.285106 1.736170 -17.429787 151 155 154
-7.235669 1.732484 -17.392782 156 160 159
-6.740741 1.888889 -18.962963 169 170 163
-6.552036 1.846154 -18.533937 171 172 165
-6.486486 1.837838 -18.450451 173 174 167
-6.472727 1.854545 -18.618181 174 176 169
-6.570765 1.893271 -19.006960 174 176 169
-6.533643 1.893271 -19.006960 174 175 171
-6.511628 1.897674 -19.051163 173 174 170
-6.474419 1.897674 -19.051163 173 174 170
-6.407407 1.888889 -18.962963 172 173 169
-3.929825 1.192982 -11.976608 153 159 153
-0.425815 0.542914 -5.450432 130 132 118
-0.414618 0.542193 -5.443189 132 134 120
-0.402916 0.540755 -5.428761 131 133 119
-0.392053 0.540397 -5.425166 132 134 120
-0.380701 0.539326 -5.414409 132 133 119
-0.464345 0.676617 -6.792703 133 134 120
-0.448105 0.672158 -6.747941 132 133 122
-0.433854 0.670501 -6.731307 132 133 122
-0.420707 0.670501 -6.731307 130 131 120
-0.261660 0.494246 -4.961841 131 133 119
-0.250905 0.492159 -4.940893 131 133 119
-0.239952 0.489502 -4.914217 126 128 114
-0.229117 0.486874 -4.887828 131 133 119
-0.219309 0.486293 -4.882002 131 133 119
-0.241727 0.587050 -5.893525 131 133 119
-0.230382 0.587473 -5.897768 131 133 119
-0.219020 0.587896 -5.902017 130 132 118
-0.207792 0.588745 -5.910534 128 130 116
-0.196248 0.588745 -5.910534 128 130 116
-0.184571 0.588320 -5.906272 128 130 116
-0.172662 0.587050 -5.893525 126 128 114
-0.064690 0.549865 -5.520216 128 130 116
-0.053727 0.548019 -5.501679 128 130 116
-0.042895 0.546917 -5.490617 129 130 116
-0.032172 0.546917 -5.490617 120 121 107
-3.709464 0.586941 -6.010272 170 176 174
-3.654822 0.580131 -5.940536 171 177 175
-3.640580 0.579710 -5.936232 171 177 175
-9.520000 2.000000 -20.480000 150 154 151
-9.339902 1.970443 -20.177340 151 155 152
-9.254902 1.960784 -20.078432 149 153 148
-13.977695 2.973978 -30.453531 145 149 144
-14.625000 3.125000 -32.000000 147 148 144
-10.528735 2.298851 -23.540230 153 159 155
-9.913043 2.173913 -22.260870 151 157 155
-9.869565 2.173913 -22.260870 146 152 150
-9.694370 2.144772 -21.962467 144 148 143
-9.651475 2.144772 -21.962467 143 147 142
-9.333333 2.083333 -21.333334 145 149 144
-8.897756 1.995013 -20.428928 142 146 141
-8.559036 1.927711 -19.739759 144 146 139
-8.359338 1.891253 -19.366430 139 141 134
-8.148149 1.851852 -18.962963 146 146 142
-8.092379 1.847575 -18.919168 151 151 147
-8.055428 1.847575 -18.919168 156 157 153
-7.729120 1.805869 -18.492100 151 155 150
-7.424837 1.742919 -17.847494 156 160 155
-7.389978 1.742919 -17.847494 157 161 156
-7.355120 1.742919 -17.847494 156 160 155
-6.570765 1.856148 -19.006960 174 175 171
-6.202643 1.762115 -18.044052 172 176 171
-6.481482 1.851852 -18.962963 170 174 169
-6.444445 1.851852 -18.962963 170 176 170
-0.442944 0.540176 -5.531398 131 133 119
-0.425815 0.532269 -5.450432 130 132 118
-0.414618 0.531561 -5.443189 132 134 120
-0.402916 0.530152 -5.428761 130 132 118
-0.392313 0.530152 -5.428761 132 134 120
-0.447001 0.657354 -6.731307 130 132 118
-0.433854 0.657354 -6.731307 130 132 118
-0.420707 0.657354 -6.731307 130 131 120
-0.261027 0.483384 -4.949849 129 131 117
-0.250452 0.481638 -4.931969 131 133 119
-0.239952 0.479904 -4.914217 131 133 119
-0.228844 0.476758 -4.882002 131 133 119
-0.218917 0.475907 -4.873290 130 132 118
-0.252874 0.574713 -5.885057 131 133 119
-0.241379 0.574713 -5.885057 130 132 118
-0.230382 0.575954 -5.897768 131 133 119
-0.219178 0.576784 -5.906272 130 132 118
-0.207792 0.577201 -5.910534 128 130 116
-0.196107 0.576784 -5.906272 128 130 116
-0.184305 0.575954 -5.897768 129 130 119
-0.172662 0.575540 -5.893525 126 127 116
-0.162084 0.578871 -5.927641 130 132 118
-0.150725 0.579710 -5.936232 130 132 118
